# .PCD v0.7 - Point Cloud Data file format
VERSION 0.7
FIELDS x y z
SIZE 4 4 4
TYPE F F F
COUNT 1 1 1
WIDTH 1565
HEIGHT 1
VIEWPOINT 0 0 0 1 0 0 0
POINTS 1565
DATA ascii
0.17134701 0.11309 0.075220004
0.17134701 0.113305 0.075220004
0.17134701 0.11352 0.075220004
0.17134701 0.113735 0.075520001
0.17134701 0.11395 0.075659998
0.17134701 0.114165 0.075659998
0.17134701 0.11438 0.075719997
0.17134701 0.114595 0.075719997
0.17134701 0.11481 0.075800002
0.17134701 0.115025 0.075800002
0.17134701 0.11524 0.075800002
0.17134701 0.115455 0.075779997
0.17134701 0.11567 0.075779997
0.17134701 0.115885 0.075779997
0.17134701 0.1161 0.075839996
0.17134701 0.116315 0.075839996
0.17134701 0.11653 0.075839996
0.17134701 0.116745 0.075539999
0.17134701 0.11696 0.075599998
0.17134701 0.117175 0.075599998
0.17134701 0.11739 0.075740002
0.17134701 0.117605 0.075740002
0.17134701 0.11782 0.075740002
0.17134701 0.118035 0.075740002
0.17134701 0.11825 0.075800002
0.17134701 0.118465 0.075879999
0.17134701 0.11868 0.075879999
0.17134701 0.118895 0.075879999
0.17134701 0.11911 0.076080002
0.17134701 0.119325 0.076080002
0.17134701 0.11954 0.076080002
0.17134701 0.119755 0.076140001
0.17134701 0.11997 0.076140001
0.17134701 0.120185 0.076140001
0.17134701 0.1204 0.076279998
0.17134701 0.120615 0.076420002
0.17134701 0.12083 0.076420002
0.17134701 0.121045 0.076420002
0.17134701 0.12126 0.076559998
0.17134701 0.121475 0.076619998
0.17134701 0.12169 0.076619998
0.17134701 0.121905 0.076839998
0.17134701 0.12212 0.076839998
0.17134701 0.122335 0.076839998
0.17134701 0.12255 0.076760001
0.17134701 0.122765 0.076820001
0.17134701 0.12298 0.076820001
0.17134701 0.123195 0.076820001
0.17134701 0.12341 0.076739997
0.17134701 0.123625 0.07666
0.17134701 0.12384 0.07666
0.17134701 0.124055 0.07666
0.17134701 0.12427 0.076499999
0.17134701 0.124485 0.07694
0.17134701 0.1247 0.07694
0.17134701 0.124915 0.07694
0.17134701 0.12513 0.076619998
0.17134701 0.12534501 0.076619998
0.17134701 0.12556 0.076679997
0.17134701 0.12577499 0.076760001
0.17134701 0.12599 0.076899998
0.17134701 0.126205 0.076899998
0.17134701 0.12642001 0.077100001
0.17134701 0.126635 0.077100001
0.17134701 0.12684999 0.077100001
0.17134701 0.127065 0.077100001
0.17134701 0.12728 0.077239998
0.17134701 0.12749501 0.077299997
0.17134701 0.12771 0.077299997
0.17134701 0.12792499 0.077440001
0.17134701 0.12814 0.077579997
0.17134701 0.128355 0.077639997
0.17134701 0.12857001 0.077639997
0.17134701 0.128785 0.077639997
0.17134701 0.12899999 0.077639997
0.17134701 0.129215 0.077639997
0.17134701 0.12943 0.077780001
0.17134701 0.129645 0.077780001
0.17134701 0.12986 0.077780001
0.17134701 0.13007499 0.077760004
0.17134701 0.13029 0.077760004
0.17134701 0.130505 0.077959999
0.17134701 0.13072 0.077959999
0.17134701 0.130935 0.077959999
0.17134701 0.13115001 0.078019999
0.17134701 0.131365 0.078019999
0.17134701 0.13158 0.078019999
0.17134701 0.131795 0.077579997
0.17134701 0.13201 0.07784
0.17134701 0.13222501 0.07784
0.17134701 0.13244 0.07784
0.17134701 0.13265499 0.0779
0.17134701 0.13287 0.0779
0.17134701 0.133085 0.0779
0.17134701 0.13330001 0.078039996
0.17134701 0.133515 0.078100003
0.17134701 0.13372999 0.078319997
0.17134701 0.133945 0.078319997
0.17134701 0.13416 0.078380004
0.17134701 0.13437501 0.078380004
0.17134701 0.13459 0.078380004
0.17134701 0.13480499 0.07858
0.17134701 0.13502 0.07858
0.17134701 0.135235 0.07858
0.17134701 0.13545001 0.07858
0.17134701 0.135665 0.07886
0.17134701 0.13587999 0.07886
0.17134701 0.136095 0.07886
0.17134701 0.13631 0.078680001
0.17134701 0.13652501 0.078680001
0.17134701 0.13674 0.078960001
0.17134701 0.13695499 0.078960001
0.17134701 0.13717 0.079039998
0.17134701 0.137385 0.079039998
0.17134701 0.1376 0.079039998
0.17134701 0.137815 0.079020001
0.17134701 0.13802999 0.079020001
0.17134701 0.138245 0.079000004
0.17134701 0.13846 0.079000004
0.17134701 0.138675 0.079000004
0.17134701 0.13889 0.078699999
0.17134701 0.13910501 0.078699999
0.17134701 0.13932 0.07846
0.17134701 0.13953499 0.07846
0.17134701 0.13975 0.077780001
0.17134701 0.139965 0.076140001
0.17134701 0.14018001 0.076140001
0.17134701 0.140395 0.076140001
0.17134701 0.14125501 0.07
0.17134701 0.14147 0.07
0.17134701 0.14168499 0.070440002
0.17134701 0.1419 0.070440002
0.17134701 0.142115 0.070440002
0.17134701 0.14233001 0.070200004
0.17134701 0.142545 0.070200004
0.17134701 0.14275999 0.070200004
0.17134701 0.142975 0.070179999
0.17134701 0.14319 0.070179999
0.17134701 0.14340501 0.070179999
0.17134701 0.14362 0.070299998
0.17134701 0.14383499 0.070299998
0.17134701 0.14405 0.070299998
0.17134701 0.144265 0.070500001
0.17134701 0.14448 0.070579998
0.17134701 0.144695 0.070579998
0.17134701 0.14490999 0.070579998
0.17134701 0.145125 0.07102
0.17134701 0.14534 0.071079999
0.17134701 0.145555 0.071079999
0.17134701 0.14577 0.071220003
0.17134701 0.14598501 0.071220003
0.17134701 0.1462 0.071220003
0.17134701 0.146415 0.071220003
0.17134701 0.14663 0.071199998
0.17134701 0.146845 0.071039997
0.17134701 0.14706001 0.071039997
0.17134701 0.147275 0.07124
0.17134701 0.14748999 0.07124
0.17134701 0.147705 0.07124
0.17134701 0.14792 0.071079999
0.17134701 0.14813501 0.071199998
0.17134701 0.14835 0.071199998
0.17134701 0.14856499 0.071199998
0.17134701 0.14878 0.071199998
0.17134701 0.148995 0.07124
0.17134701 0.14921001 0.07124
0.17134701 0.149425 0.071460001
0.17134701 0.14963999 0.071460001
0.17134701 0.149855 0.071460001
0.17134701 0.15007 0.071520001
0.17134701 0.15028501 0.07158
0.17134701 0.1505 0.072020002
0.17134701 0.15071499 0.072099999
0.17134701 0.15093 0.072099999
0.17134701 0.151145 0.072099999
0.17134701 0.15136001 0.072059996
0.17134701 0.151575 0.072059996
0.17134701 0.15178999 0.072360002
0.17134701 0.152005 0.072360002
0.17134701 0.15222 0.072360002
0.17134701 0.152435 0.072120003
0.17134701 0.15265 0.072240002
0.17134701 0.15286499 0.072319999
0.17134701 0.15308 0.072319999
0.17134701 0.153295 0.072319999
0.17134701 0.15351 0.072740003
0.17134701 0.153725 0.073100001
0.17134701 0.15394001 0.073239997
0.17134701 0.154155 0.073239997
0.17134701 0.15436999 0.073380001
0.17134701 0.154585 0.073380001
0.17134701 0.1548 0.073579997
0.17134701 0.15501501 0.073579997
0.17134701 0.15523 0.073579997
0.17134701 0.15544499 0.0735
0.17134701 0.15566 0.0735
0.17134701 0.155875 0.07378
0.17134701 0.15609001 0.07378
0.17134701 0.156305 0.073980004
0.17134701 0.15651999 0.073980004
0.17134701 0.156735 0.074259996
0.17134701 0.15695 0.074259996
0.17134701 0.15716501 0.074259996
0.17134701 0.15738 0.074160002
0.17134701 0.15759499 0.074160002
0.17134701 0.15781 0.074359998
0.17134701 0.158025 0.074359998
0.17134701 0.15824001 0.074500002
0.17134701 0.158455 0.074500002
0.17134701 0.15866999 0.074780002
0.17134701 0.158885 0.074780002
0.17134701 0.1591 0.074919999
0.17134701 0.159315 0.074919999
0.17134701 0.15953 0.074919999
0.17134701 0.15974499 0.07474
0.17134701 0.15996 0.075099997
0.17134701 0.160175 0.075099997
0.17134701 0.16039 0.075099997
0.17134701 0.160605 0.07502
0.17134701 0.16082001 0.07536
0.17134701 0.161035 0.07536
0.1729047 0.0064500002 0.029820001
0.1729047 0.0066650002 0.029820001
0.1729047 0.0068799998 0.029920001
0.1729047 0.0070949998 0.029920001
0.1729047 0.0073099998 0.029920001
0.1729047 0.0086000003 0.047460001
0.1729047 0.0088149998 0.047460001
0.1729047 0.0090300003 0.04806
0.1729047 0.0092449998 0.04806
0.1729047 0.0094600003 0.048640002
0.1729047 0.0096749999 0.04874
0.1729047 0.0098900003 0.04874
0.1729047 0.010105 0.049260002
0.1729047 0.01032 0.049260002
0.1729047 0.010535 0.04944
0.1729047 0.01075 0.049699999
0.1729047 0.010965 0.049699999
0.1729047 0.01118 0.049699999
0.1729047 0.011395 0.049800001
0.1729047 0.01161 0.049800001
0.1729047 0.011825 0.049819998
0.1729047 0.01204 0.04992
0.1729047 0.012255 0.04992
0.1729047 0.01247 0.04992
0.1729047 0.012685 0.04992
0.1729047 0.0129 0.04992
0.1729047 0.013115 0.049800001
0.1729047 0.01333 0.049800001
0.1729047 0.013545 0.049800001
0.1729047 0.01376 0.049740002
0.1729047 0.013975 0.050000001
0.1729047 0.01419 0.050000001
0.1729047 0.014405 0.050000001
0.1729047 0.01462 0.049940001
0.1729047 0.014835 0.049940001
0.1729047 0.01505 0.049880002
0.1729047 0.015265 0.049880002
0.1729047 0.01548 0.049880002
0.1729047 0.015695 0.049880002
0.1729047 0.01591 0.049819998
0.1729047 0.016124999 0.049819998
0.1729047 0.016340001 0.049759999
0.1729047 0.016555 0.049539998
0.1729047 0.01677 0.049959999
0.1729047 0.016984999 0.049959999
0.1729047 0.017200001 0.049959999
0.1729047 0.017415 0.04958
0.1729047 0.01763 0.04958
0.1729047 0.017844999 0.04958
0.1729047 0.018060001 0.04984
0.1729047 0.018275 0.04984
0.1729047 0.01849 0.049860001
0.1729047 0.018704999 0.05012
0.1729047 0.018920001 0.05012
0.1729047 0.019135 0.0502
0.1729047 0.01935 0.0502
0.1729047 0.019564999 0.0502
0.1729047 0.019780001 0.050000001
0.1729047 0.019995 0.050080001
0.1729047 0.02021 0.050080001
0.1729047 0.020424999 0.050099999
0.1729047 0.020640001 0.050099999
0.1729047 0.020855 0.050099999
0.1729047 0.02107 0.050039999
0.1729047 0.021284999 0.050039999
0.1729047 0.021500001 0.050039999
0.1729047 0.021715 0.049819998
0.1729047 0.02193 0.04984
0.1729047 0.022144999 0.04984
0.1729047 0.022360001 0.04992
0.1729047 0.022575 0.04992
0.1729047 0.02279 0.04992
0.1729047 0.023004999 0.04978
0.1729047 0.023220001 0.049800001
0.1729047 0.023435 0.049800001
0.1729047 0.02365 0.049819998
0.1729047 0.023864999 0.049819998
0.1729047 0.024080001 0.049819998
0.1729047 0.024295 0.049759999
0.1729047 0.02451 0.049759999
0.1729047 0.024724999 0.049619999
0.1729047 0.024940001 0.049619999
0.1729047 0.025155 0.049699999
0.1729047 0.02537 0.050039999
0.1729047 0.025584999 0.050039999
0.1729047 0.025800001 0.050039999
0.1729047 0.026015 0.050159998
0.1729047 0.02623 0.050159998
0.1729047 0.026445 0.0504
0.1729047 0.026660001 0.0504
0.1729047 0.026875 0.0504
0.1729047 0.02709 0.050080001
0.1729047 0.027305 0.0502
0.1729047 0.027519999 0.0502
0.1729047 0.027735 0.0502
0.1729047 0.02795 0.05046
0.1729047 0.028165 0.05046
0.1729047 0.028379999 0.05046
0.1729047 0.028595001 0.050319999
0.1729047 0.02881 0.050319999
0.1729047 0.029025 0.049660001
0.1729047 0.029239999 0.049600001
0.1729047 0.029455001 0.049600001
0.1729047 0.02967 0.049600001
0.1729047 0.029885 0.049380001
0.1729047 0.030099999 0.049380001
0.1729047 0.030315001 0.049400002
0.1729047 0.03053 0.049400002
0.1729047 0.030745 0.049400002
0.1729047 0.030959999 0.049260002
0.1729047 0.031175001 0.049260002
0.1729047 0.03139 0.049260002
0.1729047 0.031605002 0.049260002
0.1729047 0.031819999 0.049199998
0.1729047 0.032035001 0.049199998
0.1729047 0.032249998 0.049199998
0.1729047 0.032465 0.049059998
0.1729047 0.032680001 0.048980001
0.1729047 0.032894999 0.048980001
0.1729047 0.03311 0.049320001
0.1729047 0.033325002 0.049320001
0.1729047 0.033539999 0.049320001
0.1729047 0.033755001 0.049419999
0.1729047 0.033969998 0.049419999
0.1729047 0.034185 0.049419999
0.1729047 0.034400001 0.04936
0.1729047 0.034614999 0.049279999
0.1729047 0.03483 0.049279999
0.1729047 0.035045002 0.049139999
0.1729047 0.035259999 0.049320001
0.1729047 0.035475001 0.049320001
0.1729047 0.035689998 0.049320001
0.1729047 0.035905 0.048920002
0.1729047 0.036120001 0.048920002
0.1729047 0.036334999 0.049339999
0.1729047 0.03655 0.050000001
0.1729047 0.036765002 0.050000001
0.1729047 0.036979999 0.05026
0.1729047 0.037195001 0.05026
0.1729047 0.037409998 0.052299999
0.1729047 0.037625 0.054820001
0.1729047 0.037840001 0.054820001
0.1729047 0.038054999 0.054820001
0.1729047 0.03827 0.058499999
0.1729047 0.038485002 0.059920002
0.1729047 0.038699999 0.059920002
0.1729047 0.038915001 0.060320001
0.1729047 0.039129999 0.06072
0.1729047 0.039345 0.06072
0.1729047 0.039560001 0.06112
0.1729047 0.039774999 0.061519999
0.1729047 0.03999 0.061519999
0.1729047 0.040205002 0.061620001
0.1729047 0.04042 0.061939999
0.1729047 0.040635001 0.061939999
0.1729047 0.040849999 0.061939999
0.1729047 0.041065 0.062040001
0.1729047 0.041280001 0.062040001
0.1729047 0.041494999 0.062040001
0.1729047 0.04171 0.062279999
0.1729047 0.041924998 0.062279999
0.1729047 0.04214 0.062279999
0.1729047 0.042355001 0.062059999
0.1729047 0.042569999 0.062059999
0.1729047 0.042785 0.062059999
0.1729047 0.043000001 0.062240001
0.1729047 0.043214999 0.062240001
0.1729047 0.043430001 0.062240001
0.1729047 0.043644998 0.06216
0.1729047 0.04386 0.062339999
0.1729047 0.044075001 0.062339999
0.1729047 0.044289999 0.062339999
0.1729047 0.044505 0.062120002
0.1729047 0.044720002 0.062120002
0.1729047 0.044934999 0.062120002
0.1729047 0.045150001 0.062040001
0.1729047 0.045364998 0.061980002
0.1729047 0.04558 0.061980002
0.1729047 0.045795001 0.06208
0.1729047 0.046009999 0.06216
0.1729047 0.046225 0.06216
0.1729047 0.046440002 0.06216
0.1729047 0.046654999 0.061919998
0.1729047 0.046870001 0.061919998
0.1729047 0.047084998 0.061779998
0.1729047 0.0473 0.061700001
0.1729047 0.047515001 0.061560001
0.1729047 0.047729999 0.061560001
0.1729047 0.047945 0.061560001
0.1729047 0.048160002 0.061179999
0.1729047 0.048374999 0.061179999
0.1729047 0.048804998 0.0973
0.1729047 0.04902 0.0973
0.1729047 0.049235001 0.09764
0.1729047 0.049449999 0.09888
0.1729047 0.049665 0.099639997
0.1729047 0.049880002 0.099639997
0.1729047 0.050094999 0.10012
0.1729047 0.050310001 0.1008
0.1729047 0.050524998 0.1008
0.1729047 0.05074 0.10086
0.1729047 0.050955001 0.10154
0.1729047 0.051169999 0.10182
0.1729047 0.051385 0.10182
0.1729047 0.051600002 0.10256
0.1729047 0.051814999 0.10264
0.1729047 0.052030001 0.10312
0.1729047 0.052244999 0.10312
0.1729047 0.05246 0.10352
0.1729047 0.052675001 0.10386
0.1729047 0.052889999 0.104
0.1729047 0.053105 0.104
0.1729047 0.053320002 0.10442
0.1729047 0.053534999 0.10494
0.1729047 0.053750001 0.10494
0.1729047 0.053964999 0.10502
0.1729047 0.05418 0.10562
0.1729047 0.054395001 0.1059
0.1729047 0.054609999 0.1059
0.1729047 0.054825 0.10624
0.1729047 0.055039998 0.10624
0.1729047 0.055255 0.10644
0.1729047 0.055470001 0.10644
0.1729047 0.055684999 0.10678
0.1729047 0.0559 0.10724
0.1729047 0.056115001 0.10738
0.1729047 0.056329999 0.10738
0.1729047 0.056545001 0.10738
0.1729047 0.056759998 0.10726
0.1729047 0.056975 0.10804
0.1729047 0.057190001 0.10804
0.1729047 0.057404999 0.10804
0.1729047 0.05762 0.10778
0.1729047 0.057835001 0.10812
0.1729047 0.058049999 0.10812
0.1729047 0.058265001 0.10846
0.1729047 0.058479998 0.10892
0.1729047 0.058695 0.10892
0.1729047 0.058910001 0.10892
0.1729047 0.059124999 0.10874
0.1729047 0.05934 0.109
0.1729047 0.059555002 0.10934
0.1729047 0.059769999 0.1094
0.1729047 0.059985001 0.1094
0.1729047 0.060199998 0.1098
0.1729047 0.060415 0.1098
0.1729047 0.060630001 0.1098
0.1729047 0.060844999 0.10954
0.1729047 0.06106 0.11006
0.1729047 0.061275002 0.11034
0.1729047 0.061489999 0.11046
0.1729047 0.061705001 0.11046
0.1729047 0.061919998 0.1108
0.1729047 0.062135 0.1108
0.1729047 0.062350001 0.1108
0.1729047 0.062564999 0.1106
0.1729047 0.06278 0.1108
0.1729047 0.062995002 0.11114
0.1729047 0.063210003 0.11114
0.1729047 0.063424997 0.11114
0.1729047 0.063639998 0.11146
0.1729047 0.063855 0.11174
0.1729047 0.064070001 0.11174
0.1729047 0.064285003 0.11174
0.1729047 0.064499997 0.1116
0.1729047 0.064714998 0.112
0.1729047 0.064929999 0.11212
0.1729047 0.065145001 0.11212
0.1729047 0.065360002 0.11212
0.1729047 0.065575004 0.11226
0.1729047 0.065789998 0.11226
0.1729047 0.066004999 0.11252
0.1729047 0.06622 0.11252
0.1729047 0.066435002 0.11292
0.1729047 0.066650003 0.11292
0.1729047 0.066864997 0.11292
0.1729047 0.067079999 0.11274
0.1729047 0.067295 0.11274
0.1729047 0.067510001 0.11294
0.1729047 0.067725003 0.113
0.1729047 0.067939997 0.11326
0.1729047 0.068154998 0.11326
0.1729047 0.06837 0.11326
0.1729047 0.068585001 0.11404
0.1729047 0.068800002 0.11404
0.1729047 0.069014996 0.11404
0.1729047 0.069229998 0.1134
0.1729047 0.069444999 0.1136
0.1729047 0.069660001 0.1136
0.1729047 0.069875002 0.1136
0.1729047 0.070090003 0.11378
0.1729047 0.070304997 0.11398
0.1729047 0.070519999 0.11398
0.1729047 0.070735 0.11398
0.1729047 0.070950001 0.11398
0.1729047 0.071165003 0.11398
0.1729047 0.071379997 0.11426
0.1729047 0.071594998 0.11438
0.1729047 0.07181 0.11438
0.1729047 0.072025001 0.11438
0.1729047 0.072240002 0.11452
0.1729047 0.072454996 0.11452
0.1729047 0.072669998 0.11452
0.1729047 0.072884999 0.11452
0.1729047 0.073100001 0.1158
0.1729047 0.073315002 0.11644
0.1729047 0.073530003 0.11656
0.1729047 0.073744997 0.11688
0.1729047 0.073959999 0.11688
0.1729047 0.074175 0.11688
0.1729047 0.074390002 0.11688
0.1729047 0.074605003 0.11702
0.1729047 0.074819997 0.11702
0.1729047 0.075034998 0.11702
0.1729047 0.07525 0.11708
0.1729047 0.075465001 0.11708
0.1729047 0.075680003 0.11708
0.1729047 0.075894997 0.11678
0.1729047 0.076109998 0.11678
0.1729047 0.076324999 0.11678
0.1729047 0.076540001 0.11678
0.1729047 0.076755002 0.11678
0.1729047 0.076970004 0.11678
0.1729047 0.077184997 0.11696
0.1729047 0.077399999 0.11716
0.1729047 0.077615 0.11716
0.1729047 0.077830002 0.11716
0.1729047 0.078045003 0.11722
0.1729047 0.078259997 0.11728
0.1729047 0.078474998 0.11728
0.1729047 0.07869 0.11748
0.1729047 0.078905001 0.11748
0.1729047 0.079120003 0.11748
0.1729047 0.079334997 0.11754
0.1729047 0.079549998 0.11754
0.1729047 0.079764999 0.11754
0.1729047 0.079980001 0.11774
0.1729047 0.080195002 0.1178
0.1729047 0.080410004 0.1178
0.1729047 0.080624998 0.1178
0.1729047 0.080839999 0.11768
0.1729047 0.081055 0.11774
0.1729047 0.081270002 0.11774
0.1729047 0.081485003 0.11774
0.1729047 0.081699997 0.11786
0.1729047 0.081914999 0.118
0.1729047 0.08213 0.118
0.1729047 0.082345001 0.118
0.1729047 0.082560003 0.11794
0.1729047 0.082774997 0.11794
0.1729047 0.082989998 0.11806
0.1729047 0.083205 0.11806
0.1729047 0.083420001 0.11806
0.1729047 0.083635002 0.11806
0.1729047 0.083849996 0.11806
0.1729047 0.084064998 0.11756
0.1729047 0.084279999 0.11756
0.1729047 0.084495001 0.11788
0.1729047 0.084710002 0.11806
0.1729047 0.084925003 0.11806
0.1729047 0.085139997 0.11806
0.1729047 0.085354999 0.118
0.1729047 0.08557 0.11788
0.1729047 0.085785002 0.11788
0.1729047 0.086000003 0.11788
0.1729047 0.086214997 0.11788
0.1729047 0.086429998 0.1178
0.1729047 0.086645 0.1178
0.1729047 0.086860001 0.11774
0.1729047 0.087075002 0.11774
0.1729047 0.087289996 0.11794
0.1729047 0.087504998 0.11794
0.1729047 0.087719999 0.11794
0.1729047 0.087935001 0.11774
0.1729047 0.088150002 0.11756
0.1729047 0.088365003 0.11756
0.1729047 0.088579997 0.11794
0.1729047 0.088794999 0.11794
0.1729047 0.08901 0.11794
0.1729047 0.089225002 0.11788
0.1729047 0.089440003 0.11788
0.1729047 0.089654997 0.11768
0.1729047 0.089869998 0.11768
0.1729047 0.090085 0.11754
0.1729047 0.090300001 0.11754
0.1729047 0.090515003 0.11754
0.1729047 0.090729997 0.11748
0.1729047 0.090944998 0.11748
0.1729047 0.091159999 0.11748
0.1729047 0.091375001 0.11736
0.1729047 0.091590002 0.11716
0.1729047 0.091805004 0.11684
0.1729047 0.092019998 0.11704
0.1729047 0.092234999 0.11704
0.1729047 0.09245 0.11704
0.1729047 0.092665002 0.11696
0.1729047 0.092880003 0.11696
0.1729047 0.093094997 0.11702
0.1729047 0.093309999 0.11702
0.1729047 0.093525 0.11702
0.1729047 0.093740001 0.1169
0.1729047 0.093955003 0.1169
0.1729047 0.094169997 0.1169
0.1729047 0.094384998 0.11684
0.1729047 0.094599999 0.11684
0.1729047 0.094815001 0.11684
0.1729047 0.095030002 0.11682
0.1729047 0.095245004 0.11658
0.1729047 0.095459998 0.1167
0.1729047 0.095674999 0.1167
0.1729047 0.09589 0.1167
0.1729047 0.096105002 0.1165
0.1729047 0.096320003 0.1165
0.1729047 0.096534997 0.1165
0.1729047 0.096749999 0.1165
0.1729047 0.096965 0.11644
0.1729047 0.097180001 0.11612
0.1729047 0.097395003 0.11612
0.1729047 0.097609997 0.1158
0.1729047 0.097824998 0.11566
0.1729047 0.09804 0.11598
0.1729047 0.098255001 0.11598
0.1729047 0.098470002 0.11598
0.1729047 0.098684996 0.11572
0.1729047 0.098899998 0.11572
0.1729047 0.099114999 0.11572
0.1729047 0.099330001 0.1154
0.1729047 0.099545002 0.11514
0.1729047 0.099760003 0.11514
0.1729047 0.099974997 0.11488
0.1729047 0.10019 0.11488
0.1729047 0.100405 0.11488
0.1729047 0.10062 0.11488
0.1729047 0.100835 0.11488
0.1729047 0.10105 0.11474
0.1729047 0.101265 0.11468
0.1729047 0.10148 0.11468
0.1729047 0.101695 0.11468
0.1729047 0.10191 0.11436
0.1729047 0.102125 0.11396
0.1729047 0.10234 0.11396
0.1729047 0.102555 0.11358
0.1729047 0.10277 0.11376
0.1729047 0.102985 0.11376
0.1729047 0.1032 0.11376
0.1729047 0.103415 0.11356
0.1729047 0.10363 0.11324
0.1729047 0.103845 0.11324
0.1729047 0.10406 0.1131
0.1729047 0.104275 0.11266
0.1729047 0.10449 0.1129
0.1729047 0.104705 0.1129
0.1729047 0.10492 0.1129
0.1729047 0.105135 0.11252
0.1729047 0.10535 0.11252
0.1729047 0.105565 0.11206
0.1729047 0.10578 0.11186
0.1729047 0.105995 0.11186
0.1729047 0.10621 0.1116
0.1729047 0.106425 0.1116
0.1729047 0.10664 0.11126
0.1729047 0.106855 0.11126
0.1729047 0.10707 0.1108
0.1729047 0.107285 0.11034
0.1729047 0.1075 0.11034
0.1729047 0.107715 0.11034
0.1729047 0.10793 0.10996
0.1729047 0.108145 0.10996
0.1729047 0.10836 0.10936
0.1729047 0.108575 0.10928
0.1729047 0.10879 0.10928
0.1729047 0.109005 0.10862
0.1729047 0.10922 0.1081
0.1729047 0.109435 0.1081
0.1729047 0.10965 0.10716
0.1729047 0.109865 0.10716
0.1729047 0.11008 0.10656
0.1729047 0.110295 0.10662
0.1729047 0.11051 0.10662
0.1729047 0.110725 0.10662
0.1729047 0.113735 0.0744
0.1729047 0.11395 0.0744
0.1729047 0.114165 0.074759997
0.1729047 0.11438 0.075280003
0.1729047 0.114595 0.075499997
0.1729047 0.11481 0.075499997
0.1729047 0.115025 0.07564
0.1729047 0.11524 0.075719997
0.1729047 0.115455 0.075860001
0.1729047 0.11567 0.075860001
0.1729047 0.115885 0.075860001
0.1729047 0.1161 0.0757
0.1729047 0.116315 0.0757
0.1729047 0.11653 0.0757
0.1729047 0.116745 0.075759999
0.1729047 0.11696 0.075759999
0.1729047 0.117175 0.075759999
0.1729047 0.11739 0.075539999
0.1729047 0.117605 0.075740002
0.1729047 0.11782 0.075740002
0.1729047 0.118035 0.075819999
0.1729047 0.11825 0.075819999
0.1729047 0.118465 0.075819999
0.1729047 0.11868 0.075800002
0.1729047 0.118895 0.075860001
0.1729047 0.11911 0.076159999
0.1729047 0.119325 0.076159999
0.1729047 0.11954 0.076159999
0.1729047 0.119755 0.076059997
0.1729047 0.11997 0.076140001
0.1729047 0.120185 0.076140001
0.1729047 0.1204 0.076360002
0.1729047 0.120615 0.076499999
0.1729047 0.12083 0.076499999
0.1729047 0.121045 0.076499999
0.1729047 0.12126 0.076480001
0.1729047 0.121475 0.076480001
0.1729047 0.12169 0.076480001
0.1729047 0.121905 0.076619998
0.1729047 0.12212 0.076619998
0.1729047 0.122335 0.076760001
0.1729047 0.12255 0.076760001
0.1729047 0.122765 0.076760001
0.1729047 0.12298 0.076739997
0.1729047 0.123195 0.076739997
0.1729047 0.12341 0.076959997
0.1729047 0.123625 0.076959997
0.1729047 0.12384 0.076959997
0.1729047 0.124055 0.076580003
0.1729047 0.12427 0.076499999
0.1729047 0.124485 0.076499999
0.1729047 0.1247 0.076480001
0.1729047 0.124915 0.076559998
0.1729047 0.12513 0.076559998
0.1729047 0.12534501 0.076559998
0.1729047 0.12556 0.076619998
0.1729047 0.12577499 0.076679997
0.1729047 0.12599 0.076899998
0.1729047 0.126205 0.076899998
0.1729047 0.12642001 0.076899998
0.1729047 0.126635 0.077260002
0.1729047 0.12684999 0.077260002
0.1729047 0.127065 0.077260002
0.1729047 0.12728 0.077019997
0.1729047 0.12749501 0.077079996
0.1729047 0.12771 0.077079996
0.1729047 0.12792499 0.077079996
0.1729047 0.12814 0.07722
0.1729047 0.128355 0.077579997
0.1729047 0.12857001 0.077579997
0.1729047 0.128785 0.077579997
0.1729047 0.12899999 0.077639997
0.1729047 0.129215 0.077639997
0.1729047 0.12943 0.077639997
0.1729047 0.129645 0.07762
0.1729047 0.12986 0.077760004
0.1729047 0.13007499 0.077760004
0.1729047 0.13029 0.077760004
0.1729047 0.130505 0.077679999
0.1729047 0.13072 0.077679999
0.1729047 0.130935 0.077880003
0.1729047 0.13115001 0.077880003
0.1729047 0.131365 0.077880003
0.1729047 0.13158 0.077579997
0.1729047 0.131795 0.077639997
0.1729047 0.13201 0.077780001
0.1729047 0.13222501 0.077780001
0.1729047 0.13244 0.077919997
0.1729047 0.13265499 0.077919997
0.1729047 0.13287 0.077919997
0.1729047 0.133085 0.0779
0.1729047 0.13330001 0.078039996
0.1729047 0.133515 0.078100003
0.1729047 0.13372999 0.078100003
0.1729047 0.133945 0.078100003
0.1729047 0.13416 0.078299999
0.1729047 0.13437501 0.078299999
0.1729047 0.13459 0.078299999
0.1729047 0.13480499 0.07852
0.1729047 0.13502 0.078720003
0.1729047 0.135235 0.0788
0.1729047 0.13545001 0.0788
0.1729047 0.135665 0.0788
0.1729047 0.13587999 0.078780003
0.1729047 0.136095 0.078979999
0.1729047 0.13631 0.078979999
0.1729047 0.13652501 0.078979999
0.1729047 0.13674 0.078599997
0.1729047 0.13695499 0.078599997
0.1729047 0.13717 0.078599997
0.1729047 0.137385 0.079020001
0.1729047 0.1376 0.079020001
0.1729047 0.137815 0.079020001
0.1729047 0.13802999 0.078560002
0.1729047 0.138245 0.079080001
0.1729047 0.13846 0.079080001
0.1729047 0.138675 0.079080001
0.1729047 0.13889 0.078919999
0.1729047 0.13910501 0.078919999
0.1729047 0.13932 0.078819998
0.1729047 0.13953499 0.078440003
0.1729047 0.13975 0.078440003
0.1729047 0.139965 0.07762
0.1729047 0.14018001 0.07762
0.1729047 0.140825 0.072899997
0.1729047 0.14104 0.072899997
0.1729047 0.14125501 0.072899997
0.1729047 0.14147 0.070139997
0.1729047 0.14168499 0.070139997
0.1729047 0.1419 0.070139997
0.1729047 0.142115 0.070440002
0.1729047 0.14233001 0.070440002
0.1729047 0.142545 0.070440002
0.1729047 0.14275999 0.070100002
0.1729047 0.142975 0.070239998
0.1729047 0.14319 0.070239998
0.1729047 0.14340501 0.070239998
0.1729047 0.14362 0.070160002
0.1729047 0.14383499 0.070160002
0.1729047 0.14405 0.070139997
0.1729047 0.144265 0.070359997
0.1729047 0.14448 0.070500001
0.1729047 0.144695 0.070500001
0.1729047 0.14490999 0.070560001
0.1729047 0.145125 0.07102
0.1729047 0.14534 0.07102
0.1729047 0.145555 0.07102
0.1729047 0.14577 0.071060002
0.1729047 0.14598501 0.071060002
0.1729047 0.1462 0.071120001
0.1729047 0.146415 0.071120001
0.1729047 0.14663 0.071120001
0.1729047 0.146845 0.071099997
0.1729047 0.14706001 0.071099997
0.1729047 0.147275 0.071319997
0.1729047 0.14748999 0.071319997
0.1729047 0.147705 0.071319997
0.1729047 0.14792 0.071060002
0.1729047 0.14813501 0.071280003
0.1729047 0.14835 0.071280003
0.1729047 0.14856499 0.071280003
0.1729047 0.14878 0.071180001
0.1729047 0.148995 0.071400002
0.1729047 0.14921001 0.071400002
0.1729047 0.149425 0.071620002
0.1729047 0.14963999 0.071620002
0.1729047 0.149855 0.071900003
0.1729047 0.15007 0.071900003
0.1729047 0.15028501 0.071900003
0.1729047 0.1505 0.072020002
0.1729047 0.15071499 0.072159998
0.1729047 0.15093 0.072159998
0.1729047 0.151145 0.072240002
0.1729047 0.15136001 0.072379999
0.1729047 0.151575 0.072379999
0.1729047 0.15178999 0.072379999
0.1729047 0.152005 0.072120003
0.1729047 0.15222 0.072120003
0.1729047 0.152435 0.072180003
0.1729047 0.15265 0.072400004
0.1729047 0.15286499 0.072460003
0.1729047 0.15308 0.072460003
0.1729047 0.153295 0.0726
0.1729047 0.15351 0.07282
0.1729047 0.153725 0.073100001
0.1729047 0.15394001 0.073179998
0.1729047 0.154155 0.073179998
0.1729047 0.15436999 0.073179998
0.1729047 0.154585 0.07344
0.1729047 0.1548 0.07344
0.1729047 0.15501501 0.07344
0.1729047 0.15523 0.073279999
0.1729047 0.15544499 0.0735
0.1729047 0.15566 0.0735
0.1729047 0.155875 0.0735
0.1729047 0.15609001 0.073480003
0.1729047 0.156305 0.073480003
0.1729047 0.15651999 0.073459998
0.1729047 0.156735 0.073959999
0.1729047 0.15695 0.073959999
0.1729047 0.15716501 0.073959999
0.1729047 0.15738 0.074160002
0.1729047 0.15759499 0.074299999
0.1729047 0.15781 0.074600004
0.1729047 0.158025 0.0748
0.1729047 0.15824001 0.0748
0.1729047 0.158455 0.0748
0.1729047 0.15866999 0.074340001
0.1729047 0.158885 0.0744
0.1729047 0.1591 0.074759997
0.1729047 0.159315 0.074759997
0.1729047 0.15953 0.074759997
0.1729047 0.15974499 0.07474
0.1729047 0.15996 0.075039998
0.1729047 0.160175 0.075180002
0.1729047 0.16039 0.075180002
0.1729047 0.160605 0.075180002
0.1729047 0.16082001 0.075439997
0.1729047 0.161035 0.075439997
0.17446239 0.0064500002 0.02964
0.17446239 0.0066650002 0.02964
0.17446239 0.0068799998 0.02964
0.17446239 0.0083849998 0.046700001
0.17446239 0.0086000003 0.04738
0.17446239 0.0088149998 0.04738
0.17446239 0.0090300003 0.04806
0.17446239 0.0092449998 0.04806
0.17446239 0.0094600003 0.048640002
0.17446239 0.0096749999 0.048640002
0.17446239 0.0098900003 0.049079999
0.17446239 0.010105 0.049419999
0.17446239 0.01032 0.049419999
0.17446239 0.010535 0.049419999
0.17446239 0.01075 0.049940001
0.17446239 0.010965 0.049940001
0.17446239 0.01118 0.049940001
0.17446239 0.011395 0.049880002
0.17446239 0.01161 0.049880002
0.17446239 0.011825 0.049880002
0.17446239 0.01204 0.049819998
0.17446239 0.012255 0.049819998
0.17446239 0.01247 0.04992
0.17446239 0.012685 0.050020002
0.17446239 0.0129 0.050020002
0.17446239 0.013115 0.050020002
0.17446239 0.01333 0.049959999
0.17446239 0.013545 0.049959999
0.17446239 0.01376 0.049899999
0.17446239 0.013975 0.049899999
0.17446239 0.01419 0.049899999
0.17446239 0.014405 0.049940001
0.17446239 0.01462 0.049940001
0.17446239 0.014835 0.049940001
0.17446239 0.01505 0.049880002
0.17446239 0.015265 0.049880002
0.17446239 0.01548 0.049880002
0.17446239 0.015695 0.049800001
0.17446239 0.01591 0.04958
0.17446239 0.016124999 0.04958
0.17446239 0.016340001 0.04992
0.17446239 0.016555 0.04992
0.17446239 0.01677 0.04992
0.17446239 0.016984999 0.04972
0.17446239 0.017200001 0.049800001
0.17446239 0.017415 0.049819998
0.17446239 0.01763 0.049819998
0.17446239 0.017844999 0.049819998
0.17446239 0.018060001 0.049759999
0.17446239 0.018275 0.049759999
0.17446239 0.01849 0.049759999
0.17446239 0.018704999 0.0502
0.17446239 0.018920001 0.0502
0.17446239 0.019135 0.0502
0.17446239 0.01935 0.049740002
0.17446239 0.019564999 0.049740002
0.17446239 0.019780001 0.049740002
0.17446239 0.019995 0.04984
0.17446239 0.02021 0.04984
0.17446239 0.020424999 0.05026
0.17446239 0.020640001 0.05026
0.17446239 0.020855 0.05026
0.17446239 0.02107 0.049800001
0.17446239 0.021284999 0.049880002
0.17446239 0.021500001 0.049880002
0.17446239 0.021715 0.05006
0.17446239 0.02193 0.05006
0.17446239 0.022144999 0.05006
0.17446239 0.022360001 0.04992
0.17446239 0.022575 0.050099999
0.17446239 0.02279 0.050099999
0.17446239 0.023004999 0.050099999
0.17446239 0.023220001 0.049959999
0.17446239 0.023435 0.049959999
0.17446239 0.02365 0.049959999
0.17446239 0.023864999 0.049819998
0.17446239 0.024080001 0.049819998
0.17446239 0.024295 0.0495
0.17446239 0.02451 0.049520001
0.17446239 0.024724999 0.049539998
0.17446239 0.024940001 0.049539998
0.17446239 0.025155 0.049699999
0.17446239 0.02537 0.049699999
0.17446239 0.025584999 0.049699999
0.17446239 0.025800001 0.04964
0.17446239 0.026015 0.049899999
0.17446239 0.02623 0.049899999
0.17446239 0.026445 0.049899999
0.17446239 0.026660001 0.049679998
0.17446239 0.026875 0.049679998
0.17446239 0.02709 0.049699999
0.17446239 0.027305 0.049699999
0.17446239 0.027519999 0.049699999
0.17446239 0.027735 0.049800001
0.17446239 0.02795 0.049800001
0.17446239 0.028165 0.049800001
0.17446239 0.028379999 0.04964
0.17446239 0.028595001 0.0495
0.17446239 0.02881 0.0495
0.17446239 0.029025 0.049180001
0.17446239 0.029239999 0.049180001
0.17446239 0.029455001 0.049219999
0.17446239 0.02967 0.049219999
0.17446239 0.029885 0.049219999
0.17446239 0.030099999 0.049240001
0.17446239 0.030315001 0.049240001
0.17446239 0.03053 0.049240001
0.17446239 0.030745 0.049240001
0.17446239 0.030959999 0.049240001
0.17446239 0.031175001 0.049180001
0.17446239 0.03139 0.049180001
0.17446239 0.031605002 0.049180001
0.17446239 0.031819999 0.049040001
0.17446239 0.032035001 0.049040001
0.17446239 0.032249998 0.049040001
0.17446239 0.032465 0.048900001
0.17446239 0.032680001 0.048900001
0.17446239 0.032894999 0.048900001
0.17446239 0.03311 0.048840001
0.17446239 0.033325002 0.048840001
0.17446239 0.033539999 0.048840001
0.17446239 0.033755001 0.049260002
0.17446239 0.033969998 0.049279999
0.17446239 0.034185 0.049279999
0.17446239 0.034400001 0.049279999
0.17446239 0.034614999 0.048799999
0.17446239 0.03483 0.048799999
0.17446239 0.035045002 0.049380001
0.17446239 0.035259999 0.049380001
0.17446239 0.035475001 0.049380001
0.17446239 0.035689998 0.048920002
0.17446239 0.035905 0.048999999
0.17446239 0.036120001 0.048999999
0.17446239 0.036334999 0.049260002
0.17446239 0.03655 0.049759999
0.17446239 0.036765002 0.049759999
0.17446239 0.036979999 0.05164
0.17446239 0.037195001 0.05164
0.17446239 0.037409998 0.052719999
0.17446239 0.037625 0.052719999
0.17446239 0.037840001 0.05618
0.17446239 0.038054999 0.05618
0.17446239 0.03827 0.059119999
0.17446239 0.038485002 0.060079999
0.17446239 0.038699999 0.060079999
0.17446239 0.038915001 0.060400002
0.17446239 0.039129999 0.06064
0.17446239 0.039345 0.06064
0.17446239 0.039560001 0.06112
0.17446239 0.039774999 0.061439998
0.17446239 0.03999 0.061439998
0.17446239 0.040205002 0.061620001
0.17446239 0.04042 0.061779998
0.17446239 0.040635001 0.061779998
0.17446239 0.040849999 0.06188
0.17446239 0.041065 0.062259998
0.17446239 0.041280001 0.062259998
0.17446239 0.041494999 0.062259998
0.17446239 0.04171 0.062279999
0.17446239 0.041924998 0.0623
0.17446239 0.04214 0.0623
0.17446239 0.042355001 0.0623
0.17446239 0.042569999 0.062380001
0.17446239 0.042785 0.062380001
0.17446239 0.043000001 0.062380001
0.17446239 0.043214999 0.061840001
0.17446239 0.043430001 0.061840001
0.17446239 0.043644998 0.062100001
0.17446239 0.04386 0.062180001
0.17446239 0.044075001 0.062180001
0.17446239 0.044289999 0.062180001
0.17446239 0.044505 0.062199999
0.17446239 0.044720002 0.062199999
0.17446239 0.044934999 0.062199999
0.17446239 0.045150001 0.061500002
0.17446239 0.045364998 0.061039999
0.17446239 0.04558 0.061039999
0.17446239 0.045795001 0.060880002
0.17446239 0.046440002 0.095660001
0.17446239 0.046654999 0.095660001
0.17446239 0.046870001 0.096699998
0.17446239 0.047084998 0.097599998
0.17446239 0.0473 0.097599998
0.17446239 0.047515001 0.098219998
0.17446239 0.047729999 0.098559998
0.17446239 0.047945 0.099260002
0.17446239 0.048160002 0.099260002
0.17446239 0.048374999 0.099880002
0.17446239 0.048590001 0.10056
0.17446239 0.048804998 0.10056
0.17446239 0.04902 0.10056
0.17446239 0.049235001 0.10112
0.17446239 0.049449999 0.10186
0.17446239 0.049665 0.10186
0.17446239 0.049880002 0.10206
0.17446239 0.050094999 0.1026
0.17446239 0.050310001 0.1026
0.17446239 0.050524998 0.1026
0.17446239 0.05074 0.10302
0.17446239 0.050955001 0.1035
0.17446239 0.051169999 0.10358
0.17446239 0.051385 0.10358
0.17446239 0.051600002 0.1039
0.17446239 0.051814999 0.10432
0.17446239 0.052030001 0.10432
0.17446239 0.052244999 0.10466
0.17446239 0.05246 0.10472
0.17446239 0.052675001 0.10494
0.17446239 0.052889999 0.10494
0.17446239 0.053105 0.10528
0.17446239 0.053320002 0.10588
0.17446239 0.053534999 0.10588
0.17446239 0.053750001 0.10588
0.17446239 0.053964999 0.10622
0.17446239 0.05418 0.10636
0.17446239 0.054395001 0.10676
0.17446239 0.054609999 0.10676
0.17446239 0.054825 0.10682
0.17446239 0.055039998 0.10682
0.17446239 0.055255 0.10682
0.17446239 0.055470001 0.10676
0.17446239 0.055684999 0.10704
0.17446239 0.0559 0.10718
0.17446239 0.056115001 0.1077
0.17446239 0.056329999 0.1077
0.17446239 0.056545001 0.10798
0.17446239 0.056759998 0.1081
0.17446239 0.056975 0.1083
0.17446239 0.057190001 0.1083
0.17446239 0.057404999 0.10858
0.17446239 0.05762 0.10858
0.17446239 0.057835001 0.10878
0.17446239 0.058049999 0.10878
0.17446239 0.058265001 0.10886
0.17446239 0.058479998 0.10912
0.17446239 0.058695 0.10932
0.17446239 0.058910001 0.10978
0.17446239 0.059124999 0.10978
0.17446239 0.05934 0.10978
0.17446239 0.059555002 0.1098
0.17446239 0.059769999 0.11012
0.17446239 0.059985001 0.11012
0.17446239 0.060199998 0.11026
0.17446239 0.060415 0.11038
0.17446239 0.060630001 0.11064
0.17446239 0.060844999 0.11064
0.17446239 0.06106 0.11078
0.17446239 0.061275002 0.11078
0.17446239 0.061489999 0.11078
0.17446239 0.061705001 0.11078
0.17446239 0.061919998 0.11092
0.17446239 0.062135 0.11146
0.17446239 0.062350001 0.11158
0.17446239 0.062564999 0.11158
0.17446239 0.06278 0.11158
0.17446239 0.062995002 0.1114
0.17446239 0.063210003 0.11166
0.17446239 0.063424997 0.11166
0.17446239 0.063639998 0.11172
0.17446239 0.063855 0.11174
0.17446239 0.064070001 0.1118
0.17446239 0.064285003 0.11212
0.17446239 0.064499997 0.11212
0.17446239 0.064714998 0.11226
0.17446239 0.064929999 0.11272
0.17446239 0.065145001 0.11272
0.17446239 0.065360002 0.11272
0.17446239 0.065575004 0.11272
0.17446239 0.065789998 0.11252
0.17446239 0.066004999 0.1126
0.17446239 0.06622 0.1126
0.17446239 0.066435002 0.11286
0.17446239 0.066650003 0.11306
0.17446239 0.066864997 0.11312
0.17446239 0.067079999 0.11326
0.17446239 0.067295 0.11326
0.17446239 0.067510001 0.11332
0.17446239 0.067725003 0.11358
0.17446239 0.067939997 0.11358
0.17446239 0.068154998 0.11358
0.17446239 0.06837 0.11346
0.17446239 0.068585001 0.11358
0.17446239 0.068800002 0.11384
0.17446239 0.069014996 0.11384
0.17446239 0.069229998 0.11384
0.17446239 0.069444999 0.11404
0.17446239 0.069660001 0.11404
0.17446239 0.069875002 0.11404
0.17446239 0.070090003 0.11412
0.17446239 0.070304997 0.11424
0.17446239 0.070519999 0.11424
0.17446239 0.070735 0.11462
0.17446239 0.070950001 0.11462
0.17446239 0.071165003 0.11464
0.17446239 0.071379997 0.11464
0.17446239 0.071594998 0.1147
0.17446239 0.07181 0.1147
0.17446239 0.072025001 0.11496
0.17446239 0.072240002 0.11516
0.17446239 0.072454996 0.11548
0.17446239 0.072669998 0.11554
0.17446239 0.072884999 0.11554
0.17446239 0.073100001 0.11554
0.17446239 0.073315002 0.11528
0.17446239 0.073530003 0.11528
0.17446239 0.073744997 0.11528
0.17446239 0.073959999 0.11516
0.17446239 0.074175 0.11498
0.17446239 0.074390002 0.11554
0.17446239 0.074605003 0.11612
0.17446239 0.074819997 0.11612
0.17446239 0.075034998 0.11658
0.17446239 0.07525 0.11664
0.17446239 0.075465001 0.11678
0.17446239 0.075680003 0.11678
0.17446239 0.075894997 0.1169
0.17446239 0.076109998 0.11696
0.17446239 0.076324999 0.11702
0.17446239 0.076540001 0.11716
0.17446239 0.076755002 0.11716
0.17446239 0.076970004 0.11734
0.17446239 0.077184997 0.11754
0.17446239 0.077399999 0.11754
0.17446239 0.077615 0.11754
0.17446239 0.077830002 0.11754
0.17446239 0.078045003 0.11754
0.17446239 0.078259997 0.11754
0.17446239 0.078474998 0.11786
0.17446239 0.07869 0.11786
0.17446239 0.078905001 0.11786
0.17446239 0.079120003 0.1178
0.17446239 0.079334997 0.1178
0.17446239 0.079549998 0.11774
0.17446239 0.079764999 0.11792
0.17446239 0.079980001 0.11792
0.17446239 0.080195002 0.11792
0.17446239 0.080410004 0.11762
0.17446239 0.080624998 0.11762
0.17446239 0.080839999 0.11762
0.17446239 0.081055 0.11762
0.17446239 0.081270002 0.11754
0.17446239 0.081485003 0.11754
0.17446239 0.081699997 0.11768
0.17446239 0.081914999 0.1178
0.17446239 0.08213 0.11818
0.17446239 0.082345001 0.11818
0.17446239 0.082560003 0.11818
0.17446239 0.082774997 0.11768
0.17446239 0.082989998 0.1178
0.17446239 0.083205 0.1178
0.17446239 0.083420001 0.1178
0.17446239 0.083635002 0.1178
0.17446239 0.083849996 0.1178
0.17446239 0.084064998 0.1178
0.17446239 0.084279999 0.1178
0.17446239 0.084495001 0.1178
0.17446239 0.084710002 0.11768
0.17446239 0.084925003 0.11768
0.17446239 0.085139997 0.11768
0.17446239 0.085354999 0.11768
0.17446239 0.08557 0.11768
0.17446239 0.085785002 0.11768
0.17446239 0.086000003 0.11768
0.17446239 0.086214997 0.11806
0.17446239 0.086429998 0.11812
0.17446239 0.086645 0.11812
0.17446239 0.086860001 0.11812
0.17446239 0.087075002 0.11774
0.17446239 0.087289996 0.11768
0.17446239 0.087504998 0.1178
0.17446239 0.087719999 0.1178
0.17446239 0.087935001 0.1178
0.17446239 0.088150002 0.11774
0.17446239 0.088365003 0.11774
0.17446239 0.088579997 0.11806
0.17446239 0.088794999 0.11806
0.17446239 0.08901 0.11806
0.17446239 0.089225002 0.11762
0.17446239 0.089440003 0.11762
0.17446239 0.089654997 0.11762
0.17446239 0.089869998 0.11762
0.17446239 0.090085 0.11786
0.17446239 0.090300001 0.11786
0.17446239 0.090515003 0.11798
0.17446239 0.090729997 0.11798
0.17446239 0.090944998 0.11798
0.17446239 0.091159999 0.11798
0.17446239 0.091375001 0.11798
0.17446239 0.091590002 0.11792
0.17446239 0.091805004 0.11786
0.17446239 0.092019998 0.11786
0.17446239 0.092234999 0.11786
0.17446239 0.09245 0.1178
0.17446239 0.092665002 0.11772
0.17446239 0.092880003 0.11772
0.17446239 0.093094997 0.11786
0.17446239 0.093309999 0.11786
0.17446239 0.093525 0.11786
0.17446239 0.093740001 0.11766
0.17446239 0.093955003 0.11754
0.17446239 0.094169997 0.11754
0.17446239 0.094384998 0.11734
0.17446239 0.094599999 0.11708
0.17446239 0.094815001 0.11722
0.17446239 0.095030002 0.11734
0.17446239 0.095245004 0.11734
0.17446239 0.095459998 0.11734
0.17446239 0.095674999 0.11682
0.17446239 0.09589 0.11682
0.17446239 0.096105002 0.11676
0.17446239 0.096320003 0.11676
0.17446239 0.096534997 0.11676
0.17446239 0.096749999 0.1167
0.17446239 0.096965 0.11656
0.17446239 0.097180001 0.11688
0.17446239 0.097395003 0.11688
0.17446239 0.097609997 0.11688
0.17446239 0.097824998 0.11656
0.17446239 0.09804 0.11656
0.17446239 0.098255001 0.1165
0.17446239 0.098470002 0.1165
0.17446239 0.098684996 0.11624
0.17446239 0.098899998 0.1161
0.17446239 0.099114999 0.1161
0.17446239 0.099330001 0.1161
0.17446239 0.099545002 0.11584
0.17446239 0.099760003 0.11552
0.17446239 0.099974997 0.11596
0.17446239 0.10019 0.11596
0.17446239 0.100405 0.11596
0.17446239 0.10062 0.1159
0.17446239 0.100835 0.1159
0.17446239 0.10105 0.11564
0.17446239 0.101265 0.1157
0.17446239 0.10148 0.1157
0.17446239 0.101695 0.1157
0.17446239 0.10191 0.11532
0.17446239 0.102125 0.11506
0.17446239 0.10234 0.115
0.17446239 0.102555 0.115
0.17446239 0.10277 0.115
0.17446239 0.102985 0.11492
0.17446239 0.1032 0.11492
0.17446239 0.103415 0.11492
0.17446239 0.10363 0.1146
0.17446239 0.103845 0.11452
0.17446239 0.10406 0.11452
0.17446239 0.104275 0.1142
0.17446239 0.10449 0.11382
0.17446239 0.104705 0.11382
0.17446239 0.10492 0.11388
0.17446239 0.105135 0.11388
0.17446239 0.10535 0.11388
0.17446239 0.105565 0.1136
0.17446239 0.10578 0.1136
0.17446239 0.105995 0.11334
0.17446239 0.10621 0.11316
0.17446239 0.106425 0.11316
0.17446239 0.10664 0.1125
0.17446239 0.106855 0.1125
0.17446239 0.10707 0.1125
0.17446239 0.107285 0.11242
0.17446239 0.1075 0.1123
0.17446239 0.107715 0.1119
0.17446239 0.10793 0.1119
0.17446239 0.108145 0.11152
0.17446239 0.10836 0.11138
0.17446239 0.108575 0.11138
0.17446239 0.10879 0.11138
0.17446239 0.109005 0.1113
0.17446239 0.10922 0.11066
0.17446239 0.109435 0.11066
0.17446239 0.10965 0.11038
0.17446239 0.109865 0.11012
0.17446239 0.11008 0.11012
0.17446239 0.110295 0.11012
0.17446239 0.11051 0.10958
0.17446239 0.110725 0.10958
0.17446239 0.11094 0.10918
0.17446239 0.111155 0.10892
0.17446239 0.11137 0.10892
0.17446239 0.111585 0.1082
0.17446239 0.1118 0.10812
0.17446239 0.112015 0.10812
0.17446239 0.11223 0.10726
0.17446239 0.112445 0.10726
0.17446239 0.11266 0.1066
0.17446239 0.112875 0.1062
0.17446239 0.11309 0.1062
0.17446239 0.113305 0.1054
0.17446239 0.11352 0.1054
0.17446239 0.113735 0.10526
0.17446239 0.116745 0.074940003
0.17446239 0.11696 0.074940003
0.17446239 0.117175 0.075000003
0.17446239 0.11739 0.07508
0.17446239 0.117605 0.075439997
0.17446239 0.11782 0.075439997
0.17446239 0.118035 0.075439997
0.17446239 0.11825 0.075580001
0.17446239 0.118465 0.075580001
0.17446239 0.11868 0.075580001
0.17446239 0.118895 0.075860001
0.17446239 0.11911 0.075999998
0.17446239 0.119325 0.075999998
0.17446239 0.11954 0.075999998
0.17446239 0.119755 0.075999998
0.17446239 0.11997 0.075999998
0.17446239 0.120185 0.075999998
0.17446239 0.1204 0.076279998
0.17446239 0.120615 0.076499999
0.17446239 0.12083 0.076499999
0.17446239 0.121045 0.076499999
0.17446239 0.12126 0.076499999
0.17446239 0.121475 0.076480001
0.17446239 0.12169 0.076480001
0.17446239 0.121905 0.076619998
0.17446239 0.12212 0.076619998
0.17446239 0.122335 0.076679997
0.17446239 0.12255 0.076679997
0.17446239 0.122765 0.076739997
0.17446239 0.12298 0.076739997
0.17446239 0.123195 0.076739997
0.17446239 0.12341 0.07666
0.17446239 0.123625 0.076800004
0.17446239 0.12384 0.07694
0.17446239 0.124055 0.07694
0.17446239 0.12427 0.07694
0.17446239 0.124485 0.07694
0.17446239 0.1247 0.07694
0.17446239 0.124915 0.076559998
0.17446239 0.12513 0.076760001
0.17446239 0.12534501 0.076760001
0.17446239 0.12556 0.076760001
0.17446239 0.12577499 0.076760001
0.17446239 0.12599 0.076820001
0.17446239 0.126205 0.076820001
0.17446239 0.12642001 0.076820001
0.17446239 0.126635 0.076959997
0.17446239 0.12684999 0.076959997
0.17446239 0.127065 0.076959997
0.17446239 0.12728 0.077160001
0.17446239 0.12749501 0.077380002
0.17446239 0.12771 0.077380002
0.17446239 0.12792499 0.077519998
0.17446239 0.12814 0.077519998
0.17446239 0.128355 0.077519998
0.17446239 0.12857001 0.077440001
0.17446239 0.128785 0.07756
0.17446239 0.12899999 0.07756
0.17446239 0.129215 0.07756
0.17446239 0.12943 0.077699997
0.17446239 0.129645 0.077699997
0.17446239 0.12986 0.077699997
0.17446239 0.13007499 0.077699997
0.17446239 0.13029 0.077760004
0.17446239 0.130505 0.077820003
0.17446239 0.13072 0.077959999
0.17446239 0.130935 0.077959999
0.17446239 0.13115001 0.077959999
0.17446239 0.131365 0.077880003
0.17446239 0.13158 0.077880003
0.17446239 0.131795 0.077639997
0.17446239 0.13201 0.077699997
0.17446239 0.13222501 0.077699997
0.17446239 0.13244 0.07784
0.17446239 0.13265499 0.0779
0.17446239 0.13287 0.078039996
0.17446239 0.133085 0.078039996
0.17446239 0.13330001 0.078120001
0.17446239 0.133515 0.078319997
0.17446239 0.13372999 0.078319997
0.17446239 0.133945 0.078319997
0.17446239 0.13416 0.07846
0.17446239 0.13437501 0.07852
0.17446239 0.13459 0.07852
0.17446239 0.13480499 0.07858
0.17446239 0.13502 0.07858
0.17446239 0.135235 0.0788
0.17446239 0.13545001 0.0788
0.17446239 0.135665 0.079000004
0.17446239 0.13587999 0.079000004
0.17446239 0.136095 0.079000004
0.17446239 0.13631 0.078840002
0.17446239 0.13652501 0.078840002
0.17446239 0.13674 0.078680001
0.17446239 0.13695499 0.078680001
0.17446239 0.13717 0.07846
0.17446239 0.137385 0.078939997
0.17446239 0.1376 0.078939997
0.17446239 0.137815 0.078939997
0.17446239 0.13802999 0.079080001
0.17446239 0.138245 0.079080001
0.17446239 0.13846 0.079080001
0.17446239 0.138675 0.079080001
0.17446239 0.13889 0.078759998
0.17446239 0.13910501 0.078759998
0.17446239 0.13932 0.078539997
0.17446239 0.13953499 0.07852
0.17446239 0.13975 0.07852
0.17446239 0.139965 0.077919997
0.17446239 0.14018001 0.077919997
0.17446239 0.140395 0.077100001
0.17446239 0.14060999 0.077100001
0.17446239 0.14147 0.070519999
0.17446239 0.14168499 0.070519999
0.17446239 0.1419 0.070519999
0.17446239 0.142115 0.070440002
0.17446239 0.14233001 0.070440002
0.17446239 0.142545 0.070440002
0.17446239 0.14275999 0.07034
0.17446239 0.142975 0.070639998
0.17446239 0.14319 0.070639998
0.17446239 0.14340501 0.070639998
0.17446239 0.14362 0.070840001
0.17446239 0.14383499 0.070900001
0.17446239 0.14405 0.070900001
0.17446239 0.144265 0.070900001
0.17446239 0.14448 0.070660003
0.17446239 0.144695 0.070660003
0.17446239 0.14490999 0.070799999
0.17446239 0.145125 0.070799999
0.17446239 0.14534 0.070799999
0.17446239 0.145555 0.070699997
0.17446239 0.14577 0.071060002
0.17446239 0.14598501 0.071060002
0.17446239 0.1462 0.071060002
0.17446239 0.146415 0.071060002
0.17446239 0.14663 0.071039997
0.17446239 0.146845 0.071099997
0.17446239 0.14706001 0.071099997
0.17446239 0.147275 0.071319997
0.17446239 0.14748999 0.071319997
0.17446239 0.147705 0.071599998
0.17446239 0.14792 0.071599998
0.17446239 0.14813501 0.071599998
0.17446239 0.14835 0.071419999
0.17446239 0.14856499 0.071419999
0.17446239 0.14878 0.071419999
0.17446239 0.148995 0.071400002
0.17446239 0.14921001 0.071400002
0.17446239 0.149425 0.071460001
0.17446239 0.14963999 0.071460001
0.17446239 0.149855 0.071900003
0.17446239 0.15007 0.071900003
